ply
format ascii 1.0
element vertex 1202
property float x
property float y
property float z
property uchar red
property uchar green
property uchar blue
end_header
5.66636 -3.14691 -1.31756 184 123 90 
5.51487 -3.14788 -1.35342 182 132 99 
5.3623 -3.14913 -1.39957 187 139 101 
5.20862 -3.15067 -1.45562 176 116 83 
5.05405 -3.1524 -1.51891 171 113 91 
4.90314 -3.15296 -1.54127 182 128 104 
4.75386 -3.15299 -1.5454 185 131 92 
4.60218 -3.1537 -1.57352 184 122 73 
4.45599 -3.15279 -1.54497 192 126 79 
4.32348 -3.14804 -1.38099 205 145 113 
4.18508 -3.14504 -1.27891 213 149 97 
4.05082 -3.14098 -1.13931 205 143 102 
3.92054 -3.13594 -0.965306 190 130 94 
3.79781 -3.12902 -0.724764 174 119 92 
3.67888 -3.12128 -0.455229 182 116 93 
3.55926 -3.11392 -0.198743 177 124 92 
3.43677 -3.10747 0.0254848 176 113 79 
3.31318 -3.10145 0.234596 161 103 75 
3.18631 -3.09639 0.409927 167 111 71 
3.05665 -3.09213 0.557029 167 120 82 
2.92612 -3.08825 0.693077 167 127 89 
2.79188 -3.0854 0.794595 176 130 86 
2.65815 -3.08248 0.898382 176 132 97 
2.52165 -3.08026 0.977285 184 121 90 
2.38254 -3.07868 1.0335 198 144 105 
2.24242 -3.07736 1.08066 195 127 87 
2.10119 -3.0763 1.11842 189 130 94 
1.95883 -3.07551 1.14674 184 129 93 
1.81483 -3.07508 1.16218 180 130 93 
1.6699 -3.07485 1.1704 187 140 105 
1.52287 -3.07507 1.16294 190 127 81 
1.37393 -3.07568 1.14155 187 122 84 
1.22396 -3.07649 1.11339 185 133 84 
1.07222 -3.07764 1.0731 172 117 84 
0.917625 -3.07934 1.01326 163 113 86 
0.760431 -3.08154 0.936218 164 124 85 
0.600618 -3.08421 0.842403 163 112 81 
0.436863 -3.08761 0.722942 156 117 85 
0.26693 -3.09217 0.56291 153 108 79 
0.0867184 -3.09867 0.335001 148 92 56 
-0.116802 -3.10961 -0.0485189 158 105 71 
-0.297638 -3.11591 -0.269489 182 106 73 
-0.462591 -3.11903 -0.378493 192 128 72 
-0.623302 -3.12127 -0.456597 205 137 92 
-0.777231 -3.12217 -0.487839 218 138 80 
-0.927141 -3.12229 -0.491665 220 153 88 
-1.07462 -3.12195 -0.479154 221 153 98 
-1.21871 -3.12098 -0.444622 221 155 120 
-1.37295 -3.12186 -0.475052 218 133 92 
-1.51455 -3.12043 -0.424484 215 147 106 
-1.63485 -3.11521 -0.240985 211 151 99 
-1.76069 -3.11104 -0.0946447 220 154 100 
-1.89975 -3.10926 -0.0318973 220 169 104 
-2.04757 -3.10903 -0.0231396 187 129 86 
-2.20286 -3.11009 -0.0592804 180 116 84 
-2.36344 -3.11202 -0.125992 164 112 73 
-2.53181 -3.11524 -0.237322 143 103 76 
-2.73058 -3.12353 -0.525388 154 110 76 
-2.8919 -3.1254 -0.589306 176 134 106 
-3.05959 -3.12821 -0.688662 172 120 86 
-3.22509 -3.13044 -0.77369 161 123 105 
-3.3902 -3.13255 -0.854531 161 116 86 
-3.55767 -3.13499 -0.946814 163 122 93 
-3.7251 -3.13736 -1.03683 158 124 94 
-3.89258 -3.13968 -1.1251 151 122 101 
-4.0627 -3.14236 -1.22597 156 114 78 
-4.23374 -3.14511 -1.32964 154 116 88 
-4.40436 -3.14775 -1.42883 150 118 90 
-4.5812 -3.15126 -1.55936 153 121 93 
-4.75576 -3.15436 -1.67505 153 109 98 
-4.93457 -3.15803 -1.81087 146 111 88 
-5.11958 -3.16253 -1.97654 151 115 91 
-5.30419 -3.16689 -2.13698 146 119 92 
-5.49111 -3.17149 -2.30625 150 113 97 
-5.67157 -3.17507 -2.43905 153 115 91 
-5.85163 -3.17852 -2.56714 161 125 93 
-6.02449 -3.18088 -2.65611 163 115 84 
-6.19935 -3.18346 -2.75307 146 119 80 
-6.3821 -3.18709 -2.88726 136 110 78 
-6.56458 -3.19061 -3.01736 127 87 71 
-6.76397 -3.19648 -3.22724 114 87 71 
-6.97122 -3.20336 -3.47142 96 76 59 
7.24359 -3.26862 -2.02479 101 68 60 
7.11026 -3.26239 -1.81414 119 88 63 
6.9775 -3.25616 -1.60323 127 86 63 
6.84104 -3.25159 -1.44836 133 91 66 
6.70313 -3.24772 -1.31744 145 96 69 
6.56691 -3.24333 -1.1691 148 101 75 
6.42948 -3.23953 -1.04053 145 105 73 
6.28962 -3.23672 -0.945483 150 103 72 
6.14333 -3.23626 -0.930536 148 96 70 
5.98897 -3.2386 -1.01072 164 110 81 
5.83157 -3.24187 -1.12279 163 104 81 
5.67593 -3.24442 -1.21049 167 113 80 
5.52248 -3.24613 -1.2702 180 125 88 
5.37057 -3.24725 -1.3103 195 134 89 
5.21823 -3.24845 -1.35323 177 122 90 
5.06295 -3.25052 -1.42581 184 115 82 
4.911 -3.25146 -1.46051 195 131 84 
4.76228 -3.25137 -1.46009 192 131 98 
4.6149 -3.25086 -1.44548 189 129 90 
4.45979 -3.25261 -1.50855 172 104 70 
4.32395 -3.24871 -1.37816 218 143 103 
4.18751 -3.24507 -1.2569 211 150 105 
4.05161 -3.24136 -1.13341 205 141 98 
3.91767 -3.2372 -0.994179 200 139 90 
3.78979 -3.23147 -0.801571 189 125 94 
3.66875 -3.22404 -0.550433 180 138 98 
3.54788 -3.21676 -0.304101 180 123 88 
3.42427 -3.21037 -0.088466 171 122 87 
3.30276 -3.2036 0.14061 176 127 83 
3.17561 -3.19843 0.314732 171 114 80 
3.04738 -3.19365 0.475488 171 119 73 
2.91589 -3.18988 0.604247 176 115 86 
2.78071 -3.18714 0.698907 176 120 83 
2.64792 -3.18387 0.811782 182 118 79 
2.51154 -3.18152 0.89268 182 130 93 
2.37276 -3.17979 0.952627 190 122 85 
2.23134 -3.1787 0.99036 180 132 100 
2.09152 -3.17725 1.04034 195 143 106 
1.94913 -3.17641 1.06935 189 141 103 
1.80566 -3.17582 1.08979 187 135 94 
1.66179 -3.17532 1.10711 187 127 84 
1.51454 -3.17557 1.0986 177 126 90 
1.36535 -3.17623 1.07613 185 125 92 
1.21537 -3.17704 1.04863 179 128 94 
1.06412 -3.17809 1.0127 179 131 89 
0.911971 -3.1793 0.971378 174 123 79 
0.754595 -3.18159 0.893499 169 122 84 
0.595809 -3.1841 0.807521 159 111 79 
0.431396 -3.18773 0.683785 161 117 89 
0.263497 -3.19199 0.53847 154 113 80 
0.0834053 -3.19865 0.311671 145 94 66 
-0.117637 -3.20939 -0.0545252 150 98 60 
-0.298462 -3.21588 -0.275318 180 119 78 
-0.461239 -3.21865 -0.369526 187 126 77 
-0.62236 -3.22104 -0.450411 202 133 82 
-0.776849 -3.22207 -0.48537 203 133 81 
-0.927424 -3.22232 -0.493536 221 143 91 
-1.07539 -3.22206 -0.48413 220 161 103 
-1.21812 -3.2208 -0.440768 221 156 104 
-1.36673 -3.22064 -0.435193 220 141 88 
-1.51361 -3.22016 -0.418345 210 144 95 
-1.63758 -3.21545 -0.257832 215 153 103 
-1.75956 -3.21045 -0.0873523 213 143 101 
-1.8969 -3.20831 -0.0139983 206 146 110 
-2.04909 -3.20886 -0.0320475 192 121 83 
-2.20412 -3.20989 -0.0664407 180 117 80 
-2.36481 -3.2119 -0.133691 164 109 69 
-2.53164 -3.21494 -0.235838 150 106 68 
-2.73156 -3.22367 -0.530591 145 107 88 
-2.89323 -3.22565 -0.596439 182 130 95 
-3.06071 -3.2285 -0.69453 174 127 92 
-3.22994 -3.23143 -0.800882 164 126 99 
-3.39253 -3.23318 -0.867164 167 130 100 
-3.56035 -3.23575 -0.96128 167 118 98 
-3.72839 -3.2383 -1.05464 161 115 95 
-3.89553 -3.24063 -1.14086 151 119 81 
-4.067 -3.24361 -1.24901 156 117 85 
-4.23663 -3.24623 -1.34478 150 112 92 
-4.40494 -3.24857 -1.43125 154 117 92 
-4.57979 -3.25189 -1.55103 154 115 80 
-4.75475 -3.25515 -1.66885 146 119 88 
-4.93009 -3.2584 -1.78631 148 115 92 
-5.10932 -3.26217 -1.92173 145 109 86 
-5.29335 -3.26659 -2.07953 151 114 81 
-5.47903 -3.27116 -2.24284 148 118 95 
-5.6556 -3.27429 -2.35605 148 118 89 
-5.83892 -3.27835 -2.50138 140 113 80 
-6.01494 -3.28126 -2.60682 150 117 79 
-6.19513 -3.28471 -2.73093 148 106 73 
-6.37841 -3.28853 -2.8679 128 101 75 
-6.5669 -3.29302 -3.02788 123 93 64 
-6.77059 -3.2997 -3.25869 106 87 63 
-6.98183 -3.30736 -3.52202 94 69 50 
7.25169 -3.36645 -1.91451 99 73 57 
7.11977 -3.35953 -1.68662 122 94 62 
6.98576 -3.35371 -1.495 133 94 56 
6.84868 -3.34933 -1.35037 143 103 79 
6.71039 -3.34556 -1.22608 146 97 70 
6.57277 -3.34164 -1.09712 153 106 81 
6.4346 -3.33806 -0.979114 151 106 76 
6.29764 -3.33413 -0.849701 143 100 69 
6.15529 -3.33227 -0.788972 159 94 65 
5.99955 -3.33526 -0.887983 154 101 85 
5.84237 -3.33863 -0.999605 169 117 89 
5.68761 -3.34101 -1.07936 161 116 77 
5.53083 -3.34398 -1.1786 176 122 79 
5.37699 -3.34583 -1.24157 195 123 84 
5.22579 -3.34673 -1.27315 182 139 97 
5.07172 -3.34851 -1.33402 180 116 82 
4.91835 -3.34999 -1.38512 198 136 90 
4.77061 -3.34963 -1.3756 180 138 93 
4.62241 -3.3494 -1.37065 202 132 99 
4.46562 -3.35176 -1.45184 171 109 73 
4.32554 -3.34903 -1.36424 197 138 99 
4.19128 -3.34466 -1.22187 210 147 106 
4.05255 -3.34169 -1.12611 205 141 98 
3.91817 -3.33753 -0.991113 208 152 97 
3.78652 -3.33271 -0.833861 197 138 99 
3.65916 -3.32682 -0.640763 185 136 97 
3.53672 -3.31972 -0.407449 185 131 88 
3.41356 -3.31299 -0.18632 182 130 89 
3.29031 -3.30645 0.0285986 187 121 82 
3.16388 -3.3009 0.210448 182 130 89 
3.03639 -3.29575 0.37899 167 120 82 
2.90445 -3.29196 0.505088 182 130 89 
2.77074 -3.28873 0.613386 187 132 88 
2.63773 -3.28539 0.72547 185 137 95 
2.50146 -3.28292 0.808342 190 132 90 
2.3627 -3.28109 0.869445 185 131 92 
2.2222 -3.27972 0.915565 190 141 90 
2.08168 -3.27837 0.960869 200 142 103 
1.93905 -3.27753 0.988975 193 136 87 
1.79602 -3.27679 1.01373 192 143 100 
1.65248 -3.27617 1.03447 190 132 94 
1.50564 -3.27631 1.02995 185 134 92 
1.35739 -3.27676 1.0153 185 135 90 
1.20806 -3.27742 0.99336 172 130 93 
1.05571 -3.27872 0.949929 184 135 95 
0.904709 -3.27969 0.917734 176 122 90 
0.748134 -3.28184 0.846242 161 125 84 
0.58838 -3.28463 0.753853 174 132 83 
0.426384 -3.28782 0.647844 161 120 91 
0.257147 -3.29247 0.493531 153 118 74 
0.0783201 -3.29904 0.276017 151 102 69 
-0.118328 -3.30916 -0.0595295 146 104 70 
-0.308407 -3.31774 -0.343344 171 108 71 
-0.459818 -3.31825 -0.360079 192 148 85 
-0.62059 -3.32063 -0.438675 197 140 80 
-0.777491 -3.32218 -0.489682 206 133 80 
-0.92668 -3.32215 -0.488664 206 132 83 
-1.07435 -3.32182 -0.477319 215 139 89 
-1.21527 -3.32016 -0.422285 220 153 104 
-1.35976 -3.31922 -0.390552 197 146 98 
-1.5116 -3.31968 -0.405477 206 146 97 
-1.63422 -3.31458 -0.236504 215 149 102 
-1.75985 -3.31012 -0.0888552 218 149 99 
-1.89888 -3.30822 -0.0258606 203 130 98 
-2.05078 -3.30873 -0.0419521 195 131 84 
-2.20558 -3.30974 -0.0748091 177 127 78 
-2.36568 -3.3117 -0.138437 161 113 75 
-2.5325 -3.31481 -0.240378 146 103 65 
-2.73215 -3.32374 -0.533477 153 118 83 
-2.8955 -3.32607 -0.609067 177 138 101 
-3.06142 -3.32873 -0.697963 176 121 88 
-3.22828 -3.33134 -0.790683 164 125 95 
-3.39555 -3.33396 -0.883689 176 130 97 
-3.56193 -3.33636 -0.969542 172 123 99 
-3.73335 -3.33955 -1.08173 164 140 113 
-3.90064 -3.34198 -1.16851 166 128 101 
-4.07048 -3.34477 -1.26748 148 115 89 
-4.24004 -3.34745 -1.36267 154 111 88 
-4.40856 -3.34991 -1.45014 156 124 102 
-4.57957 -3.3527 -1.54906 158 113 80 
-4.7546 -3.35607 -1.66728 146 108 83 
-4.92989 -3.35941 -1.78444 145 117 88 
-5.10577 -3.36277 -1.90225 141 111 84 
-5.2882 -3.36708 -2.05179 145 120 88 
-5.47109 -3.37137 -2.20077 158 126 92 
-5.64707 -3.37452 -2.3113 146 116 88 
-5.83025 -3.37868 -2.45621 143 104 79 
-6.01104 -3.38241 -2.58615 136 115 83 
-6.19374 -3.38634 -2.72299 138 97 70 
-6.37838 -3.39048 -2.86681 120 95 63 
-6.57082 -3.3957 -3.04624 114 87 71 
-6.78051 -3.40347 -3.30629 104 81 58 
-6.99607 -3.41199 -3.59014 91 69 49 
7.26366 -3.46239 -1.7501 114 81 59 
7.1288 -3.45665 -1.56577 125 83 61 
6.99386 -3.45114 -1.38887 141 93 69 
6.85542 -3.44726 -1.26412 141 93 61 
6.71674 -3.4436 -1.14655 154 113 80 
6.57958 -3.43945 -1.01311 151 102 81 
6.44155 -3.43576 -0.894901 154 105 73 
6.3048 -3.43169 -0.764366 150 100 68 
6.16526 -3.42879 -0.67141 150 93 65 
6.01136 -3.43126 -0.750644 153 100 69 
5.85323 -3.43514 -0.875716 161 111 82 
5.69883 -3.43754 -0.953414 163 105 74 
5.53986 -3.44143 -1.07932 171 112 84 
5.38497 -3.44376 -1.15549 172 107 81 
5.2324 -3.4452 -1.20342 192 125 85 
5.07951 -3.44668 -1.25278 190 126 94 
4.92654 -3.44811 -1.30088 185 123 90 
4.77728 -3.44827 -1.30842 198 138 94 
4.62886 -3.44815 -1.30668 208 141 108 
4.47845 -3.44862 -1.32453 184 132 98 
4.32943 -3.44863 -1.32759 184 122 88 
4.19234 -3.44501 -1.21332 216 143 99 
4.05435 -3.44174 -1.11046 211 145 105 
3.91818 -3.43801 -0.992737 210 135 89 
3.78441 -3.43367 -0.85526 210 147 102 
3.65103 -3.42932 -0.717548 208 138 108 
3.52697 -3.42245 -0.497913 185 135 90 
3.40139 -3.41617 -0.297402 180 132 86 
3.2792 -3.40912 -0.0715969 180 133 95 
3.15432 -3.40296 0.12524 187 124 86 
3.02578 -3.39792 0.285736 185 124 95 
2.89346 -3.3941 0.409685 193 134 91 
2.75934 -3.39085 0.515743 185 123 90 
2.62657 -3.38731 0.63103 184 134 93 
2.49161 -3.38439 0.725929 189 138 88 
2.35293 -3.38247 0.788688 189 140 97 
2.21287 -3.38092 0.839269 190 124 85 
2.07086 -3.37986 0.873623 193 134 99 
1.9286 -3.37888 0.905682 187 138 105 
1.78606 -3.37797 0.935232 193 134 99 
1.64251 -3.37731 0.956737 187 137 101 
1.49651 -3.37722 0.959545 189 133 99 
1.34859 -3.37757 0.948198 187 138 94 
1.20028 -3.37799 0.934584 180 126 93 
1.047 -3.37952 0.885019 182 127 87 
0.896496 -3.38038 0.857116 179 119 82 
0.741905 -3.38213 0.800658 169 117 89 
0.581365 -3.38515 0.703142 164 126 85 
0.420906 -3.38807 0.6086 158 119 85 
0.250094 -3.39318 0.443658 164 107 73 
0.0745979 -3.39919 0.249838 153 100 69 
-0.117942 -3.40871 -0.0571238 161 104 70 
-0.296538 -3.41509 -0.262605 180 111 78 
-0.459561 -3.41807 -0.358497 187 122 79 
-0.619805 -3.4204 -0.43353 206 138 83 
-0.776255 -3.4219 -0.481548 218 141 90 
-0.925462 -3.42188 -0.480674 215 134 85 
-1.07141 -3.42119 -0.458155 220 151 106 
-1.21767 -3.42056 -0.437665 221 159 117 
-1.35818 -3.41878 -0.380342 220 146 106 
-1.50976 -3.41921 -0.393659 216 140 94 
-1.63859 -3.41518 -0.263669 213 145 95 
-1.7624 -3.41023 -0.104366 220 142 90 
-1.90242 -3.40846 -0.0472811 215 156 103 
-2.0524 -3.40861 -0.0513971 197 135 91 
-2.20819 -3.40983 -0.0901799 184 128 80 
-2.36664 -3.41152 -0.143684 166 114 83 
-2.53383 -3.41479 -0.247742 148 103 70 
-2.73208 -3.4237 -0.532479 145 115 90 
-2.89678 -3.42634 -0.615862 171 130 91 
-3.06258 -3.42905 -0.703978 164 126 85 
-3.23038 -3.4319 -0.802075 167 131 96 
-3.39807 -3.43467 -0.897332 169 125 98 
-3.5648 -3.4372 -0.985037 172 126 93 
-3.7326 -3.43986 -1.07677 159 115 84 
-3.90484 -3.44322 -1.19117 154 123 90 
-4.07303 -3.44581 -1.28078 148 121 89 
-4.2443 -3.44886 -1.38523 161 115 93 
-4.41347 -3.45148 -1.47602 158 124 99 
-4.58162 -3.45388 -1.5593 154 117 88 
-4.75584 -3.45722 -1.67307 150 108 75 
-4.93165 -3.46074 -1.7929 151 109 81 
-5.10623 -3.46399 -1.9038 145 106 79 
-5.28745 -3.46823 -2.04701 146 107 78 
-5.46945 -3.47251 -2.19137 146 114 88 
-5.64553 -3.47576 -2.30242 148 110 82 
-5.82746 -3.47986 -2.44101 150 112 87 
-6.00993 -3.48396 -2.57957 141 104 79 
-6.19412 -3.48824 -2.72392 130 98 72 
-6.38217 -3.49302 -2.88471 119 80 61 
-6.5762 -3.49864 -3.07179 110 80 58 
-6.79566 -3.50812 -3.37942 106 78 57 
-7.01625 -3.51764 -3.68714 89 71 49 
7.40779 -3.56529 -1.81194 104 76 61 
7.27361 -3.55896 -1.61385 112 82 63 
7.13702 -3.55391 -1.45586 128 93 68 
7.00093 -3.54883 -1.29653 138 92 65 
6.86222 -3.54502 -1.17714 138 99 77 
6.72313 -3.54149 -1.06636 153 111 83 
6.58639 -3.53711 -0.929187 151 100 72 
6.44797 -3.53353 -0.817201 150 106 70 
6.31163 -3.52924 -0.683112 148 101 63 
6.17347 -3.52578 -0.574951 146 98 73 
6.02414 -3.52665 -0.601946 163 103 70 
5.86614 -3.53068 -0.727981 153 101 81 
5.71089 -3.53355 -0.817983 159 107 89 
5.55016 -3.53825 -0.965821 166 111 71 
5.39529 -3.5407 -1.04365 169 119 89 
5.24026 -3.54311 -1.12015 180 108 73 
5.08784 -3.54451 -1.16565 133 104 94 
4.9353 -3.54589 -1.21062 177 122 85 
4.78519 -3.54639 -1.2284 172 123 88 
4.63566 -3.54667 -1.23916 202 146 101 
4.48862 -3.54611 -1.22402 205 145 115 
4.33759 -3.54681 -1.24851 190 129 92 
4.19153 -3.54592 -1.22307 202 136 88 
4.05591 -3.54184 -1.09724 211 142 101 
3.91946 -3.5381 -0.982284 202 133 77 
3.78352 -3.5343 -0.86534 189 133 99 
3.65029 -3.52979 -0.726005 205 144 100 
3.52137 -3.52414 -0.550651 198 140 93 
3.39322 -3.5184 -0.372504 195 122 93 
3.26826 -3.5119 -0.170309 192 128 85 
3.14164 -3.50602 0.0126026 195 130 95 
3.01384 -3.5006 0.180975 182 137 104 
2.88368 -3.49606 0.324704 192 140 103 
2.75013 -3.49253 0.436592 184 125 82 
2.61594 -3.48924 0.540956 195 142 100 
2.48158 -3.48605 0.641962 189 140 97 
2.34259 -3.48412 0.703191 197 137 93 
2.20236 -3.48254 0.753476 185 126 95 
2.05976 -3.48158 0.78406 192 139 100 
1.91877 -3.48021 0.827219 198 132 97 
1.7768 -3.4791 0.862121 192 142 105 
1.63297 -3.47846 0.882331 189 138 88 
1.48757 -3.4782 0.890554 189 137 92 
1.33994 -3.47847 0.882168 187 129 86 
1.1919 -3.47881 0.871339 179 126 91 
1.03955 -3.48014 0.829297 182 127 82 
0.888611 -3.4811 0.798891 174 127 81 
0.734038 -3.48287 0.743209 171 130 82 
0.575171 -3.48557 0.658312 166 118 76 
0.413905 -3.48874 0.558537 158 123 83 
0.245487 -3.49343 0.410955 159 103 82 
0.0710713 -3.49935 0.225018 158 105 73 
-0.115775 -3.50787 -0.0424457 161 94 65 
-0.295514 -3.51467 -0.25582 180 121 78 
-0.459558 -3.51795 -0.358632 189 124 72 
-0.619568 -3.52029 -0.432041 195 134 80 
-0.772987 -3.52118 -0.45994 211 133 91 
-0.925106 -3.52177 -0.478331 216 152 100 
-1.06976 -3.52079 -0.447418 221 153 108 
-1.21346 -3.51962 -0.410435 221 153 116 
-1.35897 -3.51882 -0.38521 221 160 106 
-1.51133 -3.51941 -0.403355 202 118 82 
-1.64059 -3.51534 -0.275927 208 144 101 
-1.76543 -3.51046 -0.122879 221 146 106 
-1.90366 -3.50829 -0.0545253 205 143 98 
-2.05351 -3.5084 -0.0577504 197 146 98 
-2.21056 -3.5099 -0.103993 187 127 84 
-2.36807 -3.51145 -0.151747 167 109 77 
-2.53655 -3.51504 -0.263315 150 113 77 
-2.73158 -3.52358 -0.52888 141 98 81 
-2.8954 -3.52612 -0.60714 167 123 91 
-3.064 -3.52943 -0.711534 172 119 84 
-3.23212 -3.53242 -0.811311 164 126 92 
-3.39851 -3.53503 -0.8991 161 117 102 
-3.56862 -3.53825 -1.00587 150 121 116 
-3.737 -3.54108 -1.10067 164 125 88 
-3.90846 -3.54439 -1.21054 156 119 94 
-4.07711 -3.54713 -1.30247 161 106 84 
-4.24971 -3.5505 -1.41403 154 120 90 
-4.41808 -3.55306 -1.50025 167 122 98 
-4.58511 -3.55533 -1.57724 146 114 88 
-4.75847 -3.55862 -1.68627 146 102 75 
-4.93367 -3.56214 -1.80275 145 110 79 
-5.10945 -3.56567 -1.91981 141 111 84 
-5.28771 -3.56954 -2.04741 146 108 78 
-5.46899 -3.57382 -2.18806 153 110 76 
-5.64553 -3.57725 -2.30151 138 110 80 
-5.82849 -3.58163 -2.44529 140 107 75 
-6.01065 -3.5858 -2.58216 130 114 81 
-6.19615 -3.5904 -2.7331 125 95 69 
-6.39016 -3.59624 -2.92351 109 84 58 
-6.58741 -3.60254 -3.12603 102 80 58 
-6.81209 -3.6131 -3.45873 97 77 58 
-7.03671 -3.6235 -3.78538 96 66 46 
7.41116 -3.66479 -1.76697 107 79 56 
7.28057 -3.65666 -1.51941 128 85 68 
7.14412 -3.65149 -1.36127 133 94 77 
7.00814 -3.64629 -1.2024 138 87 62 
6.86837 -3.64291 -1.09871 141 97 71 
6.72987 -3.63909 -0.981774 151 112 84 
6.59377 -3.63438 -0.837961 158 111 85 
6.45554 -3.63069 -0.725228 153 101 76 
6.31843 -3.62666 -0.602183 143 95 66 
6.18252 -3.62227 -0.468377 158 99 63 
6.03771 -3.62147 -0.443711 154 102 71 
5.87957 -3.62576 -0.574157 159 100 77 
5.72511 -3.6285 -0.657745 150 96 82 
5.56415 -3.63351 -0.810848 153 91 71 
5.4066 -3.6371 -0.920845 169 109 80 
5.25068 -3.63995 -1.00894 164 107 79 
5.09679 -3.64198 -1.07204 174 116 81 
4.94437 -3.64341 -1.11714 167 109 80 
4.79425 -3.64398 -1.13641 176 128 93 
4.64356 -3.6447 -1.16039 203 135 85 
4.49496 -3.6447 -1.16218 190 132 90 
4.3461 -3.64475 -1.16596 216 161 124 
4.19526 -3.6454 -1.18845 174 104 66 
4.05539 -3.64257 -1.10406 203 151 113 
3.92245 -3.63765 -0.955666 206 143 109 
3.78386 -3.63457 -0.863856 202 134 107 
3.64726 -3.63096 -0.755668 202 139 105 
3.51703 -3.62554 -0.591848 190 134 107 
3.38603 -3.62047 -0.438802 200 142 99 
3.25838 -3.61455 -0.259589 195 136 89 
3.13146 -3.60856 -0.078166 189 136 97 
3.00379 -3.60293 0.0925359 198 145 99 
2.87257 -3.59853 0.228265 192 136 106 
2.73981 -3.59466 0.34804 198 136 90 
2.60582 -3.59119 0.455154 195 136 89 
2.47139 -3.5879 0.556605 189 125 94 
2.33225 -3.58592 0.61763 189 139 105 
2.19229 -3.58419 0.671103 193 137 96 
2.05059 -3.58293 0.709929 193 134 91 
1.90952 -3.58152 0.753298 195 143 97 
1.7677 -3.58032 0.790209 197 139 101 
1.62423 -3.57954 0.814105 198 132 88 
1.47841 -3.57935 0.81991 190 135 94 
1.33192 -3.57932 0.820943 189 130 94 
1.18344 -3.57975 0.80751 179 136 94 
1.03181 -3.58092 0.771519 180 128 86 
0.879549 -3.5822 0.732044 177 127 78 
0.725557 -3.58385 0.681302 174 118 77 
0.569012 -3.58605 0.61373 163 110 81 
0.406131 -3.58966 0.502989 164 111 79 
0.240028 -3.59393 0.372269 166 118 83 
0.0676486 -3.59952 0.200919 150 109 77 
-0.113756 -3.60703 -0.028789 161 100 68 
-0.295237 -3.6144 -0.25413 167 110 75 
-0.458743 -3.61764 -0.353269 195 130 82 
-0.618582 -3.62001 -0.42554 202 139 83 
-0.771704 -3.62086 -0.451478 213 141 89 
-0.924251 -3.62156 -0.472706 220 157 96 
-1.06875 -3.62051 -0.44073 221 157 110 
-1.21344 -3.61952 -0.410163 221 157 115 
-1.35999 -3.61891 -0.391568 221 155 111 
-1.51355 -3.61976 -0.417172 195 117 78 
-1.64347 -3.61572 -0.293666 211 144 95 
-1.76575 -3.61018 -0.124555 220 153 100 
-1.9057 -3.60829 -0.0666978 220 166 108 
-2.05485 -3.60826 -0.0655119 200 148 92 
-2.21253 -3.60991 -0.115436 192 125 85 
-2.36983 -3.61145 -0.161735 161 115 82 
-2.53877 -3.61523 -0.275872 146 93 70 
-2.73168 -3.62357 -0.528849 135 112 79 
-2.89946 -3.62694 -0.630159 167 129 89 
-3.06578 -3.62988 -0.721079 174 122 90 
-3.23208 -3.63262 -0.810358 166 123 95 
-3.39989 -3.63557 -0.906175 171 126 93 
-3.56803 -3.63852 -1.00177 156 129 103 
-3.73952 -3.642 -1.114 164 120 90 
-3.91263 -3.6457 -1.2329 163 116 95 
-4.08314 -3.64885 -1.33496 163 126 100 
-4.25456 -3.65209 -1.43975 164 121 92 
-4.42328 -3.65478 -1.52761 163 125 100 
-4.59032 -3.65711 -1.60442 156 114 80 
-4.76363 -3.66047 -1.71294 150 108 75 
-4.93657 -3.6637 -1.81723 151 106 76 
-5.11429 -3.66766 -1.94439 156 110 83 
-5.28954 -3.67113 -2.05601 145 105 79 
-5.46977 -3.67535 -2.1911 145 115 76 
-5.64739 -3.67905 -2.31006 140 104 77 
-5.831 -3.68365 -2.45706 135 104 74 
-6.0134 -3.68797 -2.59508 128 90 68 
-6.20045 -3.69295 -2.75367 117 88 69 
-6.39909 -3.69968 -2.96699 106 78 51 
-6.60299 -3.70725 -3.2018 97 73 48 
-6.82648 -3.7179 -3.52802 97 70 61 
-7.05337 -3.72893 -3.86509 91 73 56 
7.41928 -3.7619 -1.654 120 75 57 
7.28673 -3.75458 -1.43616 128 82 62 
7.15045 -3.74926 -1.27732 133 93 71 
7.01513 -3.74368 -1.11108 133 88 64 
6.87568 -3.74013 -1.00486 138 94 65 
6.73682 -3.73644 -0.894363 146 97 73 
6.59983 -3.73205 -0.763431 154 101 76 
6.46202 -3.72814 -0.646879 156 111 78 
6.32617 -3.72354 -0.509694 145 89 59 
6.19148 -3.7186 -0.362858 151 102 69 
6.04878 -3.71701 -0.315118 154 108 78 
5.89196 -3.72098 -0.432409 154 99 88 
5.73957 -3.72308 -0.494678 163 110 63 
5.57966 -3.72793 -0.638807 158 100 78 
5.41841 -3.73309 -0.792491 158 102 68 
5.26221 -3.7362 -0.885664 172 113 84 
5.10681 -3.7389 -0.966891 164 105 73 
4.95414 -3.74051 -1.01618 166 121 85 
4.80325 -3.74143 -1.04505 179 116 82 
4.65214 -3.74237 -1.07468 192 124 83 
4.50179 -3.743 -1.09535 192 133 100 
4.35302 -3.74306 -1.09919 192 129 91 
4.20426 -3.7431 -1.10234 174 116 81 
4.05827 -3.74221 -1.07814 203 135 94 
3.92681 -3.73671 -0.915935 213 147 99 
3.78657 -3.73409 -0.840187 206 142 100 
3.64861 -3.73082 -0.744877 211 136 95 
3.51348 -3.72676 -0.625809 202 142 95 
3.3819 -3.72173 -0.477577 200 133 88 
3.25083 -3.71666 -0.328226 202 135 99 
3.11938 -3.71181 -0.18562 197 142 106 
2.99231 -3.70582 -0.00834284 203 134 107 
2.86191 -3.70104 0.135588 195 133 103 
2.7297 -3.69687 0.261243 193 131 93 
2.59546 -3.69334 0.367366 195 135 95 
2.46172 -3.68974 0.475544 189 136 94 
2.32381 -3.68734 0.547675 200 150 101 
2.18351 -3.68563 0.599215 200 145 109 
2.04086 -3.68456 0.631321 205 134 92 
1.8997 -3.68311 0.674888 195 151 113 
1.75805 -3.6818 0.714023 198 137 107 
1.61543 -3.68076 0.745302 197 141 104 
1.46916 -3.68065 0.748505 189 139 90 
1.32342 -3.68039 0.755973 193 134 96 
1.1744 -3.68095 0.739272 179 126 101 
1.0232 -3.68201 0.707202 190 123 83 
0.870482 -3.68341 0.665152 180 131 88 
0.718048 -3.6847 0.626432 171 120 80 
0.561428 -3.68695 0.558924 174 116 70 
0.399106 -3.6905 0.45275 167 122 82 
0.234555 -3.69449 0.333477 169 117 91 
0.0635398 -3.6999 0.172046 163 112 72 
-0.116318 -3.70723 -0.046686 169 105 70 
-0.293612 -3.71382 -0.243243 174 116 81 
-0.457681 -3.71728 -0.346242 197 124 84 
-0.616091 -3.71938 -0.408967 208 149 87 
-0.770413 -3.72052 -0.442961 206 132 92 
-0.922176 -3.72106 -0.459072 216 138 86 
-1.06772 -3.72022 -0.434009 220 140 92 
-1.21354 -3.71944 -0.4107 221 149 105 
-1.35927 -3.71864 -0.386759 220 155 102 
-1.51349 -3.71965 -0.416531 205 133 86 
-1.64383 -3.71559 -0.295648 216 137 90 
-1.76694 -3.71007 -0.131553 216 146 100 
-1.90793 -3.70835 -0.0800009 215 147 97 
-2.0564 -3.70817 -0.0745021 190 136 100 
-2.21343 -3.70973 -0.120332 179 114 82 
-2.37217 -3.7116 -0.175191 163 110 84 
-2.54062 -3.71536 -0.286294 150 107 72 
-2.73527 -3.72426 -0.549288 138 99 80 
-2.90107 -3.72732 -0.638874 169 125 89 
-3.06668 -3.73019 -0.725555 174 131 102 
-3.23224 -3.73287 -0.810513 161 121 89 
-3.40278 -3.73642 -0.921902 167 117 87 
-3.57207 -3.73966 -1.02381 172 125 99 
-3.74118 -3.74279 -1.1225 159 122 93 
-3.91681 -3.74705 -1.25535 156 117 97 
-4.09066 -3.7509 -1.3756 156 110 87 
-4.26355 -3.75448 -1.48814 171 127 95 
-4.43058 -3.75693 -1.5664 176 136 97 
-4.59674 -3.75916 -1.63813 153 113 79 
-4.76876 -3.76237 -1.7395 156 107 75 
-4.94191 -3.76571 -1.84457 153 101 79 
-5.11851 -3.76958 -1.96562 150 114 79 
-5.2946 -3.77328 -2.08147 148 104 77 
-5.47206 -3.77713 -2.20194 146 111 83 
-5.65312 -3.78152 -2.33847 140 104 85 
-5.83364 -3.78572 -2.46949 133 91 69 
-6.01886 -3.79062 -2.6216 123 93 69 
-6.2071 -3.79592 -2.78598 119 91 63 
-6.41092 -3.80368 -3.02485 99 73 48 
-6.62087 -3.81248 -3.2888 102 79 52 
-6.84279 -3.82313 -3.60664 99 79 64 
-7.06846 -3.83424 -3.93711 93 72 51 
7.42779 -3.85862 -1.53532 119 82 63 
7.29322 -3.85218 -1.3482 130 88 60 
7.1565 -3.847 -1.19713 136 92 63 
7.02163 -3.84114 -1.02638 140 89 62 
6.8825 -3.83742 -0.917622 127 87 61 
6.74402 -3.83352 -0.803743 141 97 71 
6.60701 -3.8291 -0.674779 153 105 79 
6.46892 -3.82528 -0.563243 148 99 73 
6.33294 -3.82067 -0.429194 143 85 59 
6.19902 -3.81534 -0.27434 156 103 69 
6.05631 -3.81377 -0.228241 163 104 65 
5.90423 -3.816 -0.292062 158 96 66 
5.7528 -3.81787 -0.345674 166 113 78 
5.59371 -3.82262 -0.483088 159 108 89 
5.43202 -3.82817 -0.644094 146 97 70 
5.27419 -3.83207 -0.757539 151 107 81 
5.11921 -3.83476 -0.836224 167 116 91 
4.96611 -3.83665 -0.892166 163 107 86 
4.81411 -3.83806 -0.934394 169 109 80 
4.66195 -3.83946 -0.976389 177 112 81 
4.51038 -3.84058 -1.01079 182 115 82 
4.36364 -3.84 -0.995677 179 113 80 
4.21643 -3.83958 -0.985108 179 139 105 
4.06505 -3.84052 -1.01463 195 142 103 
3.92808 -3.8367 -0.905646 200 133 88 
3.79036 -3.83322 -0.806388 210 152 100 
3.65028 -3.83057 -0.73111 198 133 86 
3.51444 -3.82664 -0.61873 176 129 95 
3.3811 -3.82202 -0.486345 210 143 93 
3.24749 -3.8176 -0.359425 218 149 107 
3.11519 -3.81288 -0.2239 206 148 113 
2.98108 -3.80882 -0.107174 210 151 112 
2.85096 -3.80379 0.0404524 210 150 110 
2.71819 -3.79963 0.162539 195 142 103 
2.5854 -3.79556 0.282022 192 135 98 
2.45286 -3.79149 0.401157 192 140 94 
2.31532 -3.7889 0.47722 200 144 99 
2.17558 -3.78696 0.534124 205 143 109 
2.03222 -3.78603 0.561329 198 141 104 
1.89019 -3.78475 0.598843 202 141 101 
1.7492 -3.7832 0.644079 198 148 112 
1.60736 -3.78189 0.682229 195 144 103 
1.46039 -3.78194 0.68073 193 142 102 
1.31423 -3.78175 0.685841 195 135 100 
1.16471 -3.78242 0.666239 189 122 90 
1.01517 -3.78307 0.647209 195 132 87 
0.862298 -3.78452 0.604711 184 133 88 
0.709767 -3.78584 0.565952 176 117 81 
0.553201 -3.78811 0.4995 169 112 78 
0.392113 -3.79142 0.402736 171 115 82 
0.228189 -3.79534 0.288415 171 120 80 
0.0594639 -3.80032 0.1434 158 123 87 
-0.118072 -3.80727 -0.0590102 167 106 66 
-0.29208 -3.81325 -0.232989 177 115 78 
-0.456589 -3.81689 -0.339007 193 136 91 
-0.612955 -3.81858 -0.388073 205 126 83 
-0.769686 -3.8203 -0.438179 216 134 84 
-0.918934 -3.82029 -0.437767 213 151 97 
-1.06734 -3.82007 -0.43143 218 132 86 
-1.21406 -3.81946 -0.41391 220 162 128 
-1.35429 -3.81743 -0.35478 220 150 94 
-1.50912 -3.8186 -0.388662 206 131 87 
-1.64002 -3.81456 -0.271454 213 142 99 
-1.76632 -3.8096 -0.12735 216 146 100 
-1.90623 -3.8076 -0.0691239 205 161 118 
-2.05622 -3.80774 -0.0729174 193 134 91 
-2.21387 -3.80946 -0.122494 182 120 82 
-2.37392 -3.81164 -0.185098 167 113 73 
-2.54252 -3.81553 -0.296921 140 96 67 
-2.73995 -3.82521 -0.576207 141 93 74 
-2.90191 -3.82755 -0.643041 171 107 73 
-3.06934 -3.83086 -0.740202 177 130 92 
-3.23402 -3.83343 -0.819956 167 127 96 
-3.40373 -3.83691 -0.926475 164 124 95 
-3.57311 -3.84026 -1.02888 161 123 100 
-3.7414 -3.84331 -1.1229 145 112 88 
-3.91809 -3.84789 -1.26161 158 115 92 
-4.09731 -3.85285 -1.41143 146 108 83 
-4.27123 -3.85671 -1.52929 169 135 96 
-4.43547 -3.8587 -1.59203 169 120 84 
-4.60204 -3.86106 -1.66578 158 115 80 
-4.77358 -3.86426 -1.76429 151 107 81 
-4.94785 -3.86789 -1.87514 148 105 70 
-5.12154 -3.87133 -1.98055 150 114 79 
-5.29829 -3.87524 -2.09971 141 97 71 
-5.47624 -3.87928 -2.22258 140 104 77 
-5.65799 -3.88389 -2.36246 145 101 66 
-5.83813 -3.88813 -2.49128 128 93 70 
-6.02681 -3.89374 -2.66077 122 83 57 
-6.21808 -3.89968 -2.84001 109 72 50 
-6.42777 -3.90867 -3.10743 101 69 57 
-6.63877 -3.91787 -3.3759 101 81 60 
-6.85847 -3.9284 -3.6821 96 79 63 
-7.08608 -3.94011 -4.02133 91 65 49 
7.4343 -3.95614 -1.44538 119 84 63 
7.29903 -3.94997 -1.26975 125 87 64 
7.1627 -3.94453 -1.11485 140 81 55 
7.02797 -3.93852 -0.943773 143 85 54 
6.88938 -3.93452 -0.829437 141 88 59 
6.75008 -3.93097 -0.727859 148 95 75 
6.61289 -3.92658 -0.602605 151 102 67 
6.47587 -3.92224 -0.478972 148 90 68 
6.33935 -3.91781 -0.352962 151 93 67 
6.20534 -3.91245 -0.200632 151 96 67 
6.06396 -3.91034 -0.140094 167 102 66 
5.91694 -3.9106 -0.146534 158 102 61 
5.764 -3.91322 -0.219878 166 102 74 
5.6065 -3.91753 -0.341398 169 110 84 
5.44585 -3.92291 -0.493425 161 106 84 
5.28826 -3.92691 -0.606579 161 102 79 
5.13219 -3.93016 -0.699315 159 102 82 
4.97858 -3.93238 -0.762768 174 122 90 
4.82592 -3.93415 -0.813809 166 108 74 
4.67319 -3.93586 -0.863526 187 116 77 
4.52056 -3.93746 -0.91026 167 111 71 
4.37357 -3.93701 -0.899081 192 124 79 
4.22568 -3.93686 -0.896493 200 131 94 
4.07586 -3.93735 -0.91224 193 139 104 
3.93136 -3.93601 -0.876309 189 116 72 
3.79323 -3.9326 -0.781212 218 148 96 
3.65485 -3.92934 -0.690583 192 142 103 
3.51499 -3.92663 -0.615397 208 141 97 
3.38085 -3.92216 -0.490234 197 131 87 
3.24572 -3.9181 -0.376765 210 147 106 
3.11007 -3.91429 -0.270293 215 156 113 
2.97602 -3.91009 -0.152434 211 145 105 
2.84084 -3.90645 -0.0476287 208 153 132 
2.70867 -3.90197 0.0806737 189 140 119 
2.5752 -3.89796 0.195426 187 135 96 
2.44123 -3.89417 0.303849 179 133 89 
2.30559 -3.89093 0.396547 193 138 102 
2.16592 -3.88888 0.455096 206 151 106 
2.02298 -3.88778 0.486526 205 152 109 
1.88113 -3.88639 0.526395 210 140 106 
1.74069 -3.88462 0.576764 205 143 109 
1.59907 -3.88319 0.617355 193 132 96 
1.45058 -3.88362 0.605044 193 138 102 
1.30414 -3.88347 0.608961 198 141 99 
1.15483 -3.88407 0.591703 187 138 94 
1.00614 -3.88448 0.579843 198 143 99 
0.854827 -3.88554 0.549474 187 131 90 
0.700999 -3.8872 0.501945 182 131 87 
0.545255 -3.88929 0.442087 182 130 89 
0.386524 -3.89208 0.362671 172 125 88 
0.222061 -3.89621 0.245017 174 122 88 
0.0551657 -3.90084 0.113207 169 121 86 
-0.119468 -3.90724 -0.0688669 172 105 66 
-0.292905 -3.91323 -0.238804 184 129 75 
-0.455714 -3.91655 -0.333229 203 127 85 
-0.611784 -3.9182 -0.380317 211 146 89 
-0.766411 -3.91948 -0.416501 221 144 83 
-0.915065 -3.91933 -0.412336 213 144 99 
-1.06251 -3.91889 -0.399912 221 157 122 
-1.20518 -3.91735 -0.35654 216 174 124 
-1.35481 -3.9174 -0.35791 220 145 95 
-1.50731 -3.91808 -0.376965 210 129 85 
-1.63864 -3.91404 -0.262508 215 156 99 
-1.76351 -3.90864 -0.109562 210 141 85 
-1.90411 -3.90674 -0.0556442 202 138 92 
-2.05649 -3.9074 -0.0740857 190 122 81 
-2.21515 -3.90938 -0.129699 182 127 87 
-2.37634 -3.91185 -0.198989 159 106 75 
-2.54371 -3.91556 -0.303349 135 95 74 
-2.74302 -3.92587 -0.593604 145 113 93 
-2.90183 -3.92761 -0.641807 179 128 94 
-3.07063 -3.93128 -0.746878 176 129 95 
-3.23697 -3.93425 -0.836106 169 121 96 
-3.40503 -3.93749 -0.933053 169 122 91 
-3.57331 -3.9407 -1.02916 153 114 91 
-3.74113 -3.94374 -1.12054 159 113 86 
-3.91704 -3.94829 -1.25484 154 111 90 
-4.09953 -3.95401 -1.42279 148 118 95 
-4.27636 -3.95853 -1.55643 174 128 97 
-4.44094 -3.96062 -1.62078 164 123 90 
-4.60778 -3.96309 -1.69573 159 118 89 
-4.77972 -3.96644 -1.79609 154 108 83 
-4.9518 -3.96975 -1.89508 150 115 87 
-5.12554 -3.97329 -2.00059 148 108 82 
-5.30095 -3.97705 -2.1125 138 111 77 
-5.48193 -3.98173 -2.25094 136 113 81 
-5.66333 -3.98639 -2.38878 132 94 69 
-5.84404 -3.99083 -2.52029 120 87 63 
-6.03611 -3.99717 -2.7067 112 97 63 
-6.23167 -4.00399 -2.90713 102 79 55 
-6.44703 -4.01424 -3.20194 109 84 58 
-6.65476 -4.02307 -3.45351 107 73 56 
-6.87193 -4.03342 -3.74664 94 80 64 
-7.10801 -4.04687 -4.12642 86 63 56 
7.43899 -4.05445 -1.38128 119 91 63 
7.30445 -4.04782 -1.19678 130 85 65 
7.16888 -4.04192 -1.03278 136 92 60 
7.03412 -4.03584 -0.86371 133 88 64 
6.89505 -4.03204 -0.757233 146 99 70 
6.75586 -4.02842 -0.655611 156 98 64 
6.61895 -4.02384 -0.528009 150 106 77 
6.48156 -4.01962 -0.410466 154 100 71 
6.34421 -4.01551 -0.295874 154 105 76 
6.20916 -4.01051 -0.15696 164 111 79 
6.07104 -4.00698 -0.0585139 166 123 85 
5.92755 -4.00582 -0.0253263 176 121 77 
5.77643 -4.00783 -0.0799383 151 105 72 
5.61793 -4.01276 -0.215135 169 110 84 
5.45924 -4.01756 -0.347473 159 103 84 
5.30356 -4.021 -0.442216 161 106 84 
5.14644 -4.02485 -0.548824 159 97 67 
4.99151 -4.02771 -0.628517 158 108 78 
4.83879 -4.02963 -0.682266 164 109 85 
4.68567 -4.0316 -0.73791 177 115 78 
4.53207 -4.03367 -0.796293 174 123 85 
4.38394 -4.03369 -0.798122 182 123 79 
4.23491 -4.034 -0.808125 193 134 91 
4.08745 -4.03373 -0.802242 198 128 101 
3.938 -4.03412 -0.815056 182 111 69 
3.79526 -4.03222 -0.764012 203 137 101 
3.65953 -4.02801 -0.64898 218 152 99 
3.52053 -4.02498 -0.56653 203 137 89 
3.38265 -4.02164 -0.475698 218 142 96 
3.2449 -4.01833 -0.385615 218 158 122 
3.10835 -4.01471 -0.286924 216 157 105 
2.97133 -4.01134 -0.194649 220 153 109 
2.83519 -4.00788 -0.0974455 216 153 111 
2.69972 -4.00427 0.00357989 220 158 121 
2.56528 -4.00042 0.111204 197 148 121 
2.43086 -3.99664 0.216972 189 135 103 
2.29194 -3.99424 0.283953 192 140 109 
2.15497 -3.99131 0.365565 195 145 106 
2.01366 -3.98968 0.411097 211 156 116 
1.87119 -3.98839 0.446987 205 149 111 
1.73258 -3.98604 0.512532 202 154 116 
1.58721 -3.98558 0.524977 205 152 109 
1.44019 -3.98558 0.52489 192 140 98 
1.29507 -3.98504 0.53969 198 143 107 
1.1441 -3.98607 0.510828 198 143 114 
0.996865 -3.98607 0.510627 195 137 102 
0.846556 -3.98686 0.488371 187 136 86 
0.693041 -3.98845 0.443789 180 124 91 
0.537469 -3.99053 0.38581 182 123 91 
0.379378 -3.9932 0.311555 172 119 84 
0.215545 -3.99725 0.198882 174 131 92 
0.0496243 -4.00172 0.0743647 174 118 77 
-0.122394 -4.00762 -0.0892657 161 109 75 
-0.294312 -4.01336 -0.24859 190 120 90 
-0.455426 -4.01634 -0.331419 187 123 88 
-0.61078 -4.01786 -0.373678 211 143 89 
-0.762758 -4.01852 -0.392312 215 156 103 
-0.910299 -4.01811 -0.381014 221 158 97 
-1.05748 -4.01761 -0.36713 221 158 124 
-1.19846 -4.01565 -0.31313 220 151 110 
-1.35586 -4.01751 -0.364437 213 147 89 
-1.50722 -4.01793 -0.376152 206 144 100 
-1.63722 -4.01349 -0.253263 216 159 109 
-1.76116 -4.00775 -0.0945784 213 141 101 
-1.90341 -4.00617 -0.0508838 200 142 99 
-2.0571 -4.00714 -0.0773108 180 121 82 
-2.21695 -4.00942 -0.140002 177 130 96 
-2.37821 -4.01196 -0.209588 158 114 83 
-2.5433 -4.01526 -0.30023 143 98 69 
-2.7435 -4.026 -0.595679 148 116 75 
-2.90243 -4.0278 -0.644509 171 129 95 
-3.07047 -4.0314 -0.745153 163 115 86 
-3.239 -4.0349 -0.846892 167 124 96 
-3.40645 -4.0381 -0.940297 164 115 85 
-3.57379 -4.0412 -1.03096 156 110 87 
-3.74104 -4.04421 -1.11909 151 114 81 
-3.9154 -4.04856 -1.24481 145 115 88 
-4.0961 -4.05408 -1.40289 143 100 76 
-4.27964 -4.06003 -1.57343 151 109 81 
-4.44604 -4.06253 -1.64753 171 127 89 
-4.61435 -4.06533 -1.73011 169 117 86 
-4.78561 -4.06863 -1.82659 151 113 76 
-4.956 -4.0717 -1.91629 153 109 76 
-5.13066 -4.07549 -2.02643 145 109 81 
-5.30614 -4.07935 -2.1385 140 107 75 
-5.48676 -4.08407 -2.27485 132 87 62 
-5.6689 -4.08897 -2.41628 127 92 69 
-5.85306 -4.09414 -2.56515 123 90 61 
-6.04726 -4.10101 -2.76199 110 83 58 
-6.2491 -4.1091 -2.99353 106 84 60 
-6.46204 -4.11921 -3.27529 102 83 55 
-6.66819 -4.12796 -3.51837 99 75 51 
-6.88898 -4.13919 -3.82866 89 74 57 
-7.12739 -4.15337 -4.21905 89 71 49 
7.44306 -4.15298 -1.32623 128 85 62 
7.3102 -4.14535 -1.1191 130 100 65 
7.17534 -4.13903 -0.946959 140 91 65 
7.03934 -4.13349 -0.79619 154 89 64 
6.89938 -4.1301 -0.702746 148 96 73 
6.75998 -4.12653 -0.604935 156 110 87 
6.62327 -4.12179 -0.475672 164 110 81 
6.4864 -4.11728 -0.352496 158 106 80 
6.34764 -4.11376 -0.256271 159 108 67 
6.21167 -4.10909 -0.129118 166 108 74 
6.07523 -4.10476 -0.0112713 163 105 74 
5.93375 -4.10274 0.0444621 180 118 84 
5.78779 -4.10266 0.0477505 171 111 71 
5.62991 -4.10752 -0.0825518 164 106 67 
5.47219 -4.11214 -0.206324 177 119 87 
5.31827 -4.11504 -0.28426 161 111 89 
5.16196 -4.11876 -0.384658 167 108 73 
5.0055 -4.12239 -0.483104 159 105 79 
4.85199 -4.12475 -0.54719 180 107 76 
4.69872 -4.12692 -0.606485 171 117 84 
4.54494 -4.12918 -0.668566 172 121 88 
4.39476 -4.13003 -0.69262 180 102 91 
4.24505 -4.13065 -0.710877 172 99 70 
4.09734 -4.13052 -0.708731 205 135 83 
3.95099 -4.1299 -0.693296 190 133 87 
3.80131 -4.13041 -0.709022 177 107 70 
3.66214 -4.12732 -0.626631 205 134 92 
3.52514 -4.12355 -0.526072 215 144 106 
3.38597 -4.12059 -0.447391 220 141 98 
3.24619 -4.11788 -0.375737 213 141 106 
3.10892 -4.11442 -0.283506 220 154 100 
2.96896 -4.11191 -0.216617 200 92 50 
2.83132 -4.10883 -0.132013 221 157 110 
2.69363 -4.10581 -0.0493557 220 158 117 
2.55713 -4.10248 0.0417293 210 155 125 
2.42173 -4.09887 0.140252 197 141 117 
2.28277 -4.0964 0.207873 206 159 114 
2.14157 -4.09463 0.256215 198 147 114 
2.00191 -4.09242 0.316236 206 139 113 
1.86314 -4.08999 0.382384 203 150 107 
1.72307 -4.08796 0.437388 215 156 118 
1.57568 -4.08805 0.435065 203 155 117 
1.4299 -4.08766 0.445493 202 142 110 
1.28371 -4.08737 0.453068 205 148 102 
1.13648 -4.08736 0.453194 200 145 109 
0.988458 -4.08754 0.447818 200 144 108 
0.837909 -4.08839 0.424512 189 132 101 
0.684837 -4.08988 0.383847 198 135 79 
0.52971 -4.09186 0.329717 189 130 94 
0.372201 -4.09441 0.260215 182 125 91 
0.210135 -4.09807 0.160523 187 129 90 
0.0430748 -4.10293 0.0285085 177 115 85 
-0.12782 -4.10866 -0.126881 179 119 76 
-0.296393 -4.11367 -0.262973 192 129 91 
-0.455362 -4.11618 -0.331122 205 136 90 
-0.60926 -4.11737 -0.363585 208 138 91 
-0.760815 -4.11795 -0.379449 220 146 92 
-0.906664 -4.11712 -0.357111 221 154 114 
-1.05107 -4.11594 -0.325357 222 162 118 
-1.19779 -4.11532 -0.308626 221 149 106 
-1.35401 -4.11694 -0.352384 208 133 79 
-1.50624 -4.11758 -0.369668 198 130 97 
-1.63179 -4.112 -0.218903 213 140 86 
-1.75942 -4.10698 -0.0833684 206 147 109 
-1.90292 -4.10565 -0.0474486 198 132 88 
-2.05859 -4.10709 -0.0859023 184 128 84 
-2.21836 -4.1094 -0.147973 172 128 93 
-2.37876 -4.1118 -0.212291 164 115 85 
-2.54254 -4.11488 -0.295045 132 93 67 
-2.74184 -4.12567 -0.585133 158 122 87 
-2.90334 -4.12808 -0.649055 171 119 93 
-3.07171 -4.13183 -0.751492 161 119 86 
-3.24115 -4.13561 -0.858406 167 127 91 
-3.40707 -4.13856 -0.942978 166 122 80 
-3.5744 -4.14174 -1.03353 156 117 85 
-3.74271 -4.14504 -1.12754 158 116 83 
-3.91464 -4.149 -1.23965 151 114 81 
-4.092 -4.15397 -1.37928 128 99 65 
-4.28113 -4.1612 -1.58058 156 115 85 
-4.45023 -4.1643 -1.66926 164 117 76 
-4.61875 -4.16721 -1.75282 163 120 79 
-4.79225 -4.17102 -1.86102 159 113 77 
-4.96198 -4.17402 -1.94692 146 113 78 
-5.13522 -4.17762 -2.0493 153 106 69 
-5.31194 -4.18181 -2.16765 138 102 75 
-5.49226 -4.18658 -2.30221 128 101 68 
-5.67692 -4.19207 -2.45633 125 92 66 
-5.86475 -4.19803 -2.6236 117 83 53 
-6.06295 -4.20577 -2.8402 110 86 63 
-6.26537 -4.21418 -3.0738 110 77 55 
-6.47528 -4.22397 -3.33973 104 85 58 
-6.68211 -4.23305 -3.5856 97 77 48 
-6.90894 -4.24564 -3.92487 91 69 52 
-7.14639 -4.25996 -4.30975 86 74 60 
7.44783 -4.25102 -1.26098 123 87 61 
7.31526 -4.24312 -1.05117 132 93 67 
7.18069 -4.23655 -0.876322 141 95 64 
7.04323 -4.2317 -0.746533 156 110 80 
6.90357 -4.22812 -0.650096 163 110 81 
6.76386 -4.22468 -0.557302 171 116 89 
6.62601 -4.22042 -0.443489 166 109 92 
6.48846 -4.21615 -0.329349 154 111 85 
6.35153 -4.21172 -0.210984 163 111 77 
6.21422 -4.20759 -0.10073 169 110 75 
6.07783 -4.20317 0.0171481 164 106 72 
5.93878 -4.20004 0.100787 182 114 73 
5.79484 -4.19913 0.126187 180 117 76 
5.64141 -4.20227 0.0445308 164 110 72 
5.48475 -4.20663 -0.0696336 164 102 69 
5.33144 -4.20944 -0.142952 172 115 88 
5.17633 -4.21285 -0.232853 167 115 87 
5.02023 -4.21653 -0.329758 167 111 91 
4.86599 -4.21933 -0.403908 154 98 76 
4.71233 -4.22178 -0.469255 133 101 84 
4.55876 -4.2241 -0.531287 164 107 88 
4.40881 -4.22497 -0.555084 166 99 69 
4.25604 -4.22682 -0.605195 189 129 81 
4.10718 -4.22718 -0.615754 190 122 85 
3.9628 -4.22588 -0.582783 198 140 94 
3.811 -4.22723 -0.619937 185 136 103 
3.66544 -4.22634 -0.597881 202 122 68 
3.52875 -4.2224 -0.494923 213 154 101 
3.38986 -4.2193 -0.414079 221 159 109 
3.24973 -4.21666 -0.345868 221 153 103 
3.1084 -4.21448 -0.289643 220 162 115 
2.96957 -4.21154 -0.212892 220 146 110 
2.83073 -4.20878 -0.138495 220 152 111 
2.69122 -4.20627 -0.0711115 220 164 110 
2.55185 -4.20375 -0.00373663 221 166 117 
2.41222 -4.20135 0.060435 202 159 114 
2.27721 -4.19757 0.161235 205 157 122 
2.13356 -4.19648 0.190454 218 165 117 
1.99152 -4.19491 0.232283 220 155 117 
1.85156 -4.19274 0.290026 220 151 105 
1.71094 -4.19079 0.341711 213 160 122 
1.56609 -4.19009 0.360115 203 151 120 
1.42021 -4.18969 0.370705 210 149 112 
1.27401 -4.18937 0.379048 200 149 112 
1.12771 -4.18906 0.386956 202 158 120 
0.981207 -4.1888 0.393546 203 151 117 
0.82917 -4.19005 0.359969 198 145 99 
0.676582 -4.19141 0.32353 189 129 97 
0.52191 -4.19329 0.273326 189 139 94 
0.364266 -4.19591 0.20349 185 133 95 
0.203512 -4.19929 0.113635 185 133 95 
0.0380117 -4.20383 -0.00701124 172 120 86 
-0.132788 -4.20964 -0.161348 180 125 84 
-0.298219 -4.21395 -0.275615 202 126 88 
-0.455297 -4.21602 -0.330807 203 142 88 
-0.608065 -4.21695 -0.355658 216 151 94 
-0.7582 -4.21719 -0.362133 218 159 107 
-0.903834 -4.21629 -0.338485 221 160 116 
-1.04906 -4.21529 -0.312173 221 158 128 
-1.20208 -4.21619 -0.336107 220 160 106 
-1.35616 -4.21731 -0.365883 171 112 77 
-1.50117 -4.21623 -0.337262 203 135 89 
-1.62402 -4.20989 -0.169893 208 139 89 
-1.75522 -4.20561 -0.056865 210 144 100 
-1.90201 -4.20503 -0.0413698 189 135 83 
-2.05954 -4.20692 -0.0911382 177 121 76 
-2.21981 -4.2094 -0.156149 172 125 91 
-2.37914 -4.2116 -0.213882 159 116 82 
-2.54347 -4.21488 -0.299848 138 89 57 
-2.74117 -4.22555 -0.580465 158 117 92 
-2.90375 -4.22825 -0.650629 163 121 81 
-3.073 -4.23228 -0.758102 159 114 82 
-3.24315 -4.2363 -0.869057 171 121 91 
-3.40774 -4.23904 -0.945862 164 117 83 
-3.57532 -4.24235 -1.03779 145 107 88 
-3.74608 -4.24624 -1.1455 161 106 77 
-3.91533 -4.24974 -1.24248 151 109 72 
-4.09167 -4.25462 -1.37648 130 101 72 
-4.28394 -4.26266 -1.59499 163 116 93 
-4.45516 -4.26626 -1.69503 167 124 96 
-4.62387 -4.26927 -1.7793 159 111 77 
-4.79833 -4.27336 -1.89242 154 114 83 
-4.9677 -4.27635 -1.97614 148 113 80 
-5.14122 -4.28009 -2.07973 146 103 78 
-5.31951 -4.28467 -2.20604 130 98 67 
-5.50124 -4.28981 -2.34751 125 87 53 
-5.69014 -4.29622 -2.52306 119 85 61 
-5.88258 -4.30318 -2.71335 115 86 61 
-6.07863 -4.31067 -2.91835 120 80 54 
-6.27685 -4.31852 -3.12998 110 74 55 
-6.48646 -4.32847 -3.39389 99 76 54 
-6.69896 -4.33881 -3.66721 93 72 51 
-6.92876 -4.35223 -4.02032 94 63 43 
-7.16889 -4.36736 -4.41734 83 67 51 
7.45335 -4.34853 -1.18511 120 86 60 
7.32102 -4.34038 -0.973308 140 100 62 
7.18553 -4.33423 -0.812753 148 98 70 
7.04647 -4.33017 -0.705676 163 112 81 
6.90619 -4.32687 -0.618324 166 112 83 
6.76688 -4.32316 -0.520799 172 115 88 
6.62795 -4.31938 -0.421395 167 113 87 
6.48977 -4.31535 -0.315516 167 118 89 
6.35378 -4.31038 -0.185871 158 116 83 
6.21723 -4.30583 -0.0669075 166 116 85 
6.07972 -4.30185 0.0371211 167 110 75 
5.94203 -4.29806 0.136273 177 119 85 
5.79958 -4.29649 0.178168 182 123 84 
5.65196 -4.2972 0.16104 169 97 66 
5.49778 -4.30069 0.0723797 174 114 81 
5.34529 -4.3033 0.00570392 164 105 73 
5.18954 -4.30717 -0.0934549 167 118 94 
5.03322 -4.31111 -0.19483 184 114 80 
4.88114 -4.31319 -0.248563 169 120 103 
4.72633 -4.31626 -0.328097 163 112 93 
4.57295 -4.31865 -0.390362 174 121 95 
4.4241 -4.3192 -0.405209 166 122 83 
4.26881 -4.32214 -0.482154 164 107 76 
4.11817 -4.32324 -0.511575 174 125 92 
3.97244 -4.32248 -0.492935 176 107 77 
3.82409 -4.32266 -0.498977 195 133 93 
3.67488 -4.32312 -0.512278 180 120 84 
3.53133 -4.32156 -0.473082 202 130 82 
3.39318 -4.31814 -0.385861 221 165 124 
3.25444 -4.31499 -0.305626 220 156 109 
3.11061 -4.31363 -0.271818 213 137 86 
2.96926 -4.31148 -0.21715 220 145 95 
2.82937 -4.30899 -0.151628 218 142 100 
2.6891 -4.30666 -0.0904441 215 157 102 
2.54988 -4.30403 -0.0215593 220 155 112 
2.40951 -4.30181 0.0367202 220 157 106 
2.2682 -4.29991 0.08645 211 151 112 
2.12835 -4.29757 0.147246 216 161 121 
1.98707 -4.29572 0.195603 216 156 113 
1.84316 -4.29468 0.222672 211 165 112 
1.70043 -4.29329 0.258769 218 158 111 
1.55568 -4.29251 0.278874 205 152 118 
1.40823 -4.29252 0.27835 211 154 116 
1.2652 -4.29123 0.311696 203 147 113 
1.11704 -4.29142 0.306442 200 150 109 
0.968891 -4.29159 0.301801 208 145 121 
0.821316 -4.29157 0.301894 200 150 109 
0.667571 -4.29326 0.257721 193 144 102 
0.513065 -4.29511 0.209436 193 147 102 
0.357038 -4.29732 0.15177 187 130 99 
0.19645 -4.3007 0.0636564 185 141 99 
0.0318089 -4.30509 -0.0504603 185 120 81 
-0.136277 -4.3103 -0.185619 182 126 84 
-0.299235 -4.31403 -0.282731 205 134 92 
-0.455408 -4.31591 -0.331681 211 149 95 
-0.607264 -4.31663 -0.350358 215 148 116 
-0.755773 -4.31645 -0.346053 220 145 104 
-0.901758 -4.31562 -0.324797 221 160 106 
-1.04996 -4.31535 -0.317872 222 156 112 
-1.20213 -4.31605 -0.336228 221 151 117 
-1.35538 -4.31699 -0.36069 197 117 69 
-1.49349 -4.31419 -0.288403 198 137 93 
-1.61752 -4.30802 -0.12877 211 150 105 
-1.75203 -4.30445 -0.0366078 211 140 105 
-1.90122 -4.30443 -0.0360193 176 113 79 
-2.06049 -4.30677 -0.096419 176 118 95 
-2.22225 -4.30964 -0.170286 171 117 77 
-2.38053 -4.31165 -0.22154 159 109 79 
-2.54472 -4.31496 -0.306577 133 88 56 
-2.74063 -4.32546 -0.576464 159 113 79 
-2.90417 -4.32843 -0.652193 163 113 84 
-3.07505 -4.33291 -0.769113 171 122 75 
-3.24448 -4.33687 -0.875767 163 109 77 
-3.41023 -4.33993 -0.959125 156 114 89 
-3.57739 -4.34322 -1.04857 163 103 77 
-3.7484 -4.34726 -1.15756 159 113 79 
-3.91759 -4.35082 -1.25406 145 108 83 
-4.0939 -4.3558 -1.38777 132 105 75 
-4.28633 -4.36406 -1.60703 153 113 81 
-4.46121 -4.3685 -1.7268 171 126 91 
-4.62924 -4.37143 -1.80716 161 119 79 
-4.80497 -4.37587 -1.9268 156 120 78 
-4.97349 -4.37875 -2.00567 145 106 76 
-5.14792 -4.38274 -2.1138 145 102 73 
-5.32839 -4.38785 -2.25117 133 88 58 
-5.5135 -4.39377 -2.40984 117 86 53 
-5.70492 -4.4008 -2.59783 114 85 57 
-5.89878 -4.40816 -2.79475 120 84 60 
-6.09091 -4.41504 -2.97917 117 86 58 
